# .PCD v0.7 - Point Cloud Data file format
VERSION 0.7
FIELDS x y z intensity
SIZE 4 4 4 4
TYPE F F F F
COUNT 1 1 1 1
WIDTH 1413
HEIGHT 1
VIEWPOINT 0 0 0 1 0 0 0
POINTS 1413
DATA ascii
23.509975 3.234427 1.1166162 6
23.911709 3.2734866 1.1927139 5
45.379902 3.2482955 1.1915755 26
8.7692099 3.3048766 1.1646848 12
8.8318348 3.3030171 1.1582812 10
10.079818 3.3497643 1.1967322 4
10.16101 3.3460405 1.187692 4
10.271997 3.3589165 1.1746188 3.5
10.339781 3.3552456 1.1670134 3.5
10.449593 3.3534784 1.1544763 3.75
10.560169 3.3630705 1.1414123 1
10.682606 3.3526523 1.1419077 8
10.770318 3.3602259 1.154267 12.25
10.818985 3.3365319 1.1311264 5.25
11.129382 3.3958898 1.1993313 10
11.225353 3.3570132 1.1941822 2.5999999
11.359077 3.3695693 1.1881897 2
11.47184 3.3759024 1.1795034 2
11.548383 3.3800106 1.1736028 2
11.652433 3.3804569 1.1657403 2
11.762157 3.382364 1.1573837 2
11.818895 3.3760569 1.1532948 2
11.959979 3.3590672 1.1628487 4.4000001
12.010975 3.3458247 1.1563418 3.5
12.358994 3.3476505 1.113004 2
12.860606 3.3553486 1.1433859 2
13.675693 3.3558056 1.1842266 2
14.245443 3.3324075 1.1691133 2.8
14.575436 3.3613257 1.1718961 3
15.871338 3.3507519 1.1662638 2
16.665943 3.3618884 1.1638651 4
16.714647 3.3282297 1.1659998 4.3333335
16.9226 3.346236 1.1773522 3
17.260654 3.3559852 1.1888064 4
18.462551 3.3719726 1.1747073 3
18.535252 3.3287125 1.1698716 3
20.164888 3.3482513 1.1891466 5
23.498205 3.3482862 1.1161761 6
23.887802 3.3688073 1.1925412 5
45.398651 3.3750257 1.191349 26
10.688482 3.4153075 1.1248544 5
10.752218 3.4163954 1.1174288 14.5
11.645336 3.4407125 1.1891651 2
11.742775 3.4746206 1.1772126 7
11.823786 3.4971185 1.167594 10
11.951806 3.4583871 1.1565024 13
12.072049 3.4213302 1.1326003 2
12.270747 3.4619548 1.1429259 8.666667
12.358541 3.4500053 1.1493766 6.25
12.464741 3.4788961 1.1785995 2
12.874589 3.4507685 1.1417513 2
13.465155 3.4770405 1.1998609 27
13.551591 3.4705694 1.1907268 18
13.619655 3.4290645 1.1858635 4
14.199818 3.4070663 1.1680639 3
14.528935 3.4556592 1.1736925 3
15.768805 3.4413352 1.1723268 4.25
15.815636 3.4009895 1.1695487 2
16.597282 3.4924796 1.165558 5
16.64184 3.4326301 1.1671669 3.8
16.878788 3.4391644 1.1814946 3
17.192627 3.457629 1.1907703 4
17.223047 3.4178495 1.1898336 4
18.350174 3.4686532 1.1809874 3
18.408504 3.4208627 1.1776683 3
20.094639 3.4847155 1.1931338 5
20.120596 3.4409952 1.1916955 5
23.473732 3.4273467 1.1167392 6
23.87207 3.4655933 1.1918316 5
11.899836 3.5161436 1.1586733 23
12.610222 3.5146039 1.165307 2
12.721374 3.5340853 1.1551899 22
12.855702 3.5330305 1.1430775 13.333333
13.468206 3.5163755 1.1968763 17.5
14.389081 3.5899019 1.181868 24
14.452502 3.567502 1.1773239 26.5
14.5156 3.5286469 1.1731539 3
15.698919 3.5454323 1.1734272 5
15.728314 3.5439258 1.1701901 3.2
16.570452 3.5530612 1.1658111 5
16.616762 3.5592396 1.170789 5
16.883183 3.5246224 1.1825672 3
16.902966 3.5728135 1.1821132 3
17.209667 3.5330076 1.1890916 4
18.267076 3.5530922 1.1849952 3
18.308096 3.5032244 1.1833456 3
20.071093 3.5486403 1.1944692 5
23.445656 3.5339246 1.1171672 6
23.83976 3.5604329 1.1920142 5
45.388546 3.5062773 1.1917496 26
14.2644 3.6009941 1.191538 5
14.356039 3.6081963 1.1840615 21
15.436394 3.6485829 1.1955898 4.5
15.543094 3.6547019 1.1833365 7
15.654437 3.6346316 1.1723351 9.75
16.250572 3.6411211 1.1884786 5
16.337055 3.675529 1.1814297 7
16.419106 3.6713426 1.174596 19
16.560104 3.6404285 1.1684315 12
16.626947 3.621202 1.169533 5
16.898144 3.6120822 1.1830012 3
16.916994 3.6625121 1.182622 3
17.20118 3.6020756 1.1886441 4
18.187782 3.6721931 1.1871471 3
18.21295 3.616075 1.1872139 3
20.018341 3.6353455 1.197302 5
23.389643 3.6646292 1.1188068 6
23.431782 3.6162839 1.1170187 6
23.82197 3.660557 1.19124 5
45.389942 3.6384768 1.1918706 26
16.805695 3.7583718 1.1907285 15
16.915003 3.7480199 1.1840037 15
18.065054 3.7761469 1.1933523 12
18.156403 3.7427218 1.1869644 6
20.006596 3.7067766 1.1979744 5
23.389709 3.7496934 1.1177821 6
23.789642 3.7779145 1.1908855 5
23.803684 3.7302065 1.1909918 5
45.353024 3.7674747 1.1928182 26
-4.1149645 3.8191891 1.1963935 1
-4.0603862 3.8637576 1.1985871 1
23.339897 3.8755202 1.1189708 5
23.403034 3.8377442 1.1159493 6
23.750683 3.8455751 1.1917539 5
-4.0365701 3.9589493 1.1939561 1
21.889931 3.982542 1.1975349 5
22.130962 3.9882073 1.1841992 5
23.335583 3.9612837 1.1180801 5.5
23.410183 3.9411449 1.1998129 5
23.745033 3.9457092 1.190128 5
45.369438 3.9010558 1.1925583 26
-3.9948461 4.0135851 1.1939561 1
22.418844 4.0032377 1.16813 5
22.707001 4.0163107 1.1520585 5
23.108322 4.0532317 1.1293861 17
23.241245 4.026897 1.1224102 5
23.721149 4.0418663 1.1895195 5
45.363472 4.0327563 1.1927708 26
23.680954 4.1087227 1.1903508 10
45.374958 4.166183 1.1925724 26
45.350151 4.2961545 1.1931545 26
45.332863 4.4268303 1.1935461 26
45.317101 4.5576253 1.1938796 26
45.326721 4.6912303 1.1936263 26
45.329903 4.8242526 1.1934911 26
45.308788 4.9545479 1.1938713 26
45.285236 5.0845256 1.1942815 26
45.210815 5.2147427 1.1957886 26
45.268818 5.3615313 1.1943308 26
-2.0042219 -3.8994942 1.2006198 2
-1.9657623 -3.8926535 1.2053127 2
-2.2546618 -3.7111683 1.2078906 1
-2.170332 -3.708303 1.216122 1
-5.1734338 -3.6237195 1.2162555 3
-5.4343252 -3.5944562 1.2075803 3
-5.2428803 -3.5410564 1.2116369 3
-5.1386871 -3.5566077 1.2176414 4.5
-4.9259343 -3.584872 1.2349647 2
0.16431427 -2.9195535 1.2773311 4
0.23839045 -2.957458 1.2821572 5.5
0.36523628 -2.9554608 1.2921588 6
0.45291805 -2.9525955 1.2991039 6
0.055655718 -2.8329654 1.2144356 4.75
0.13809752 -2.8348722 1.2500905 3.5
0.2325151 -2.8271255 1.2276778 2
0.33968115 -2.8194165 1.2360027 3
0.47314954 -2.8210857 1.2417433 5
0.53315276 -2.8429959 1.2343234 5
0.63542587 -2.8435602 1.2401222 5.3333335
0.74847555 -2.8341439 1.2494591 5
0.83858156 -2.8347085 1.2565833 4.3333335
0.93112087 -2.8423271 1.2566358 3.5
1.0468044 -2.8789701 1.2432965 5
1.1355696 -2.8738532 1.2503908 7
1.2334862 -2.869586 1.2581826 4
1.3452291 -2.8567986 1.2672278 7
1.4318676 -2.8559723 1.2740505 6
1.5068064 -2.857954 1.2798907 4
1.6547494 -2.8421688 1.291815 4
2.0990438 -2.8016672 1.2636309 2
2.1465218 -2.8244774 1.2674872 2
2.258044 -2.8360217 1.2786101 4
2.3598504 -2.8388414 1.2891109 5.5
2.4265423 -2.8348293 1.2962725 6
2.8906856 -2.8107209 1.2496942 2
2.9598598 -2.8108249 1.2570038 3.5
3.0349338 -2.8204482 1.2644335 8
3.1330426 -2.8157082 1.2749958 5
3.2504838 -2.8100708 1.2875973 5
3.3445492 -2.8043911 1.2977238 5
0.045053322 -2.7528126 1.2414284 6.8333335
0.10404015 -2.786108 1.2760051 4
0.4416256 -2.7991695 1.2484742 3
0.56942892 -2.7926269 1.2571702 3
0.64417726 -2.7933493 1.2618748 3
0.74449944 -2.7877679 1.2686633 2
0.84489793 -2.7802641 1.2755655 2
0.95961475 -2.7810788 1.2827547 3.25
1.0548984 -2.7796326 1.2892854 2.4000001
1.1387401 -2.7805121 1.2952721 2.5
1.2037683 -2.7651327 1.2989733 2
2.0847347 -2.7157793 1.2663658 2
2.11392 -2.7523849 1.2676533 2
2.3748794 -2.7313313 1.2084045 5
2.4419549 -2.7364423 1.2149596 5
2.538646 -2.7287846 1.2254914 4.6666665
2.6451468 -2.7228036 1.2368436 4
2.7308209 -2.7206793 1.2457224 4
2.8589759 -2.7460001 1.2495478 3.2
3.6563118 -2.7299428 1.2409174 3.8
3.7528679 -2.7605298 1.2429372 5.1666665
3.8578055 -2.7447684 1.2409126 6
3.9554322 -2.7501874 1.2564198 5.5999999
4.0280914 -2.7390027 1.2604091 5.5
4.1402388 -2.7169845 1.2483 5
4.2573056 -2.7104745 1.2608659 5
4.3331809 -2.7038765 1.2690986 5
4.5483961 -2.7171483 1.2325972 4
4.6501327 -2.7321799 1.2442125 6.6666665
4.7343526 -2.7340839 1.2546161 6
4.8395047 -2.7294364 1.268106 6
4.9530945 -2.7265081 1.2823877 6
5.052247 -2.7215061 1.2949678 6
5.3991222 -2.7499225 1.2049999 11
5.4285717 -2.7481656 1.2012455 9
5.8837461 -2.7155094 1.2347429 6
-0.14363146 -2.6148305 1.2010503 5
0.039386809 -2.6517196 1.2536395 6.5
2.0521679 -2.6438997 1.2663866 2
2.7710402 -2.6179247 1.2463822 2
2.8125694 -2.6622074 1.2487019 2
3.5840564 -2.612808 1.2411871 3
3.6105685 -2.6606193 1.240749 2.5
4.3923221 -2.6929817 1.2757735 5
4.4638882 -2.6594124 1.2413971 2.75
4.548522 -2.6849418 1.2923769 5
4.613265 -2.6817794 1.2992265 6
5.5781994 -2.6400027 1.2027297 6
5.6443539 -2.6355028 1.2114038 6
5.7526121 -2.6312847 1.2252803 6
5.868329 -2.6427703 1.2387182 5.5999999
6.0608234 -2.616452 1.264454 6
6.1450219 -2.6126602 1.2749778 5.3333335
6.2429042 -2.6412303 1.2891833 4
6.3673601 -2.6956563 1.2843831 4
6.4491591 -2.681427 1.2762586 3.6666667
6.5691905 -2.6845322 1.2629342 3
6.6365929 -2.6692216 1.2563531 5
6.7427158 -2.6734385 1.24441 7
6.8579941 -2.6684115 1.2318982 7
6.9706039 -2.6602428 1.2197925 7
7.06951 -2.6563215 1.208946 7
7.1422501 -2.6518757 1.2010245 7
-0.13829613 -2.543725 1.2045377 5.5
-0.024143219 -2.5560608 1.2715071 3.3333333
0.033311129 -2.5551093 1.2394534 7.5
1.9843013 -2.5127299 1.2653198 2
2.0214131 -2.5576146 1.2672071 2
2.7585497 -2.5437753 1.2485437 2
3.5465975 -2.5489628 1.2413834 1.3333334
4.374001 -2.5282557 1.22527 2.5
4.4210782 -2.575367 1.2277027 3
7.0397611 -2.5637999 1.2965193 3.3333333
7.1515045 -2.5622103 1.2848758 3.3333333
7.2560945 -2.5532277 1.2743754 4.6666665
7.3667922 -2.5573649 1.2623538 6
7.4510946 -2.5579972 1.2533135 6
7.5498576 -2.5539992 1.242959 6
7.6406746 -2.5206041 1.2749405 5.5
7.7498193 -2.5228574 1.2534996 6.5
7.8609233 -2.5189855 1.2420884 7
7.9354625 -2.5157077 1.2447603 7
8.0587463 -2.501339 1.2536765 6
8.6217251 -2.5070958 1.2153603 6
8.7880144 -2.5224545 1.2497177 5
8.8724327 -2.5374143 1.2929926 2
8.970252 -2.5397096 1.2848001 2
9.0473242 -2.5346167 1.2785248 2
9.1548233 -2.5387075 1.2694607 2
9.2592649 -2.5255768 1.2610936 2
9.3866377 -2.5185385 1.2506349 2
9.4635687 -2.5122397 1.2443597 2
9.5371685 -2.5028565 1.2384331 2
-0.13092351 -2.4366438 1.2235855 6.25
-0.064213753 -2.4674435 1.2704149 4
0.02844882 -2.4603846 1.2457744 9
1.9813123 -2.4381864 1.2684197 2
2.6799047 -2.4233198 1.2455943 2
2.7108061 -2.4748342 1.246592 2
3.4780645 -2.4193506 1.2424043 4.5
3.516732 -2.4692357 1.2436804 1.6666666
4.2993546 -2.4070487 1.2247286 3
4.3320947 -2.4527411 1.2255847 2.2
7.8048124 -2.4982038 1.2797669 6
7.9815197 -2.4989579 1.2617447 6
8.1561213 -2.4923196 1.2442065 6.6666665
8.2674942 -2.4896333 1.2328244 6.6666665
8.3465672 -2.4785147 1.2252532 6
8.455802 -2.4816754 1.2136196 6.6666665
8.540885 -2.4702024 1.2053342 6
8.6536818 -2.4965932 1.2129657 7
8.7193851 -2.4977067 1.2064581 8
9.5289707 -2.4440837 1.2976958 2
9.6536798 -2.4608965 1.2584772 2
9.7540417 -2.4243739 1.2800502 2
9.843152 -2.4384699 1.2531424 2.3333333
9.9495573 -2.439297 1.2570025 4.6666665
10.051126 -2.4175956 1.2850262 3.5
10.160331 -2.4147565 1.2736058 2.6666667
10.262671 -2.4104025 1.2792652 2
10.354337 -2.4066827 1.2521863 3.5
10.468786 -2.4046636 1.264058 5
10.663836 -2.4014578 1.2494922 5
-0.13329053 -2.3547013 1.2311476 6.5
0.023625279 -2.354948 1.2527237 9
1.925848 -2.352567 1.2662594 2
2.647599 -2.3472877 1.2454801 2
3.4253933 -2.3459034 1.2409168 2.6666667
4.2553797 -2.345856 1.2234253 1.2857143
9.7379751 -2.385921 1.2558112 6.25
9.8451281 -2.3819716 1.2471952 8.666667
9.9415865 -2.3786707 1.2393637 7
10.056355 -2.3732407 1.2528878 5.1666665
10.155392 -2.3722312 1.2444981 4
10.226117 -2.3712821 1.2353271 5
10.341658 -2.3735733 1.2397276 4.5714288
10.448605 -2.3690515 1.2392509 3.5
10.564028 -2.3809085 1.2405841 3.2
10.659186 -2.3636968 1.2291179 2
10.728051 -2.3575451 1.2311504 3
10.847582 -2.3473873 1.2365444 2.5999999
10.952696 -2.3773489 1.2284278 3.5
11.051593 -2.377404 1.2208884 5
11.123564 -2.3663869 1.2157564 3.5
11.250007 -2.348501 1.2066535 2
11.325365 -2.3225622 1.2016971 2
12.341194 -2.3241119 1.2943873 9
12.435344 -2.3164961 1.2852463 9
12.542557 -2.3129694 1.2742833 10
12.649327 -2.307699 1.2634206 10
12.716766 -2.3021126 1.2567041 10
-6.7891874 -2.2216074 1.2745156 10
-0.14076506 -2.2454362 1.2393684 6.8571429
0.023113132 -2.2486787 1.2598991 11.25
0.10088348 -2.2395625 1.2888176 2
1.8814228 -2.248158 1.2659775 2
2.5778291 -2.2351086 1.242739 2
2.6113529 -2.2846789 1.2442777 2
3.3720684 -2.251138 1.2406822 2.6666667
4.1794705 -2.230001 1.2216382 2
4.2039299 -2.2645071 1.2224712 1
10.693875 -2.2411938 1.2080926 2
10.887248 -2.2481565 1.2357711 2
11.296624 -2.2571464 1.2059771 2
11.314876 -2.2458456 1.204914 2
11.468449 -2.2960351 1.2983284 4
11.533559 -2.2872961 1.2942952 4.3333335
11.646892 -2.2811823 1.2864738 4
11.738216 -2.2727571 1.2803949 4
11.843587 -2.2708201 1.2727036 3.6666667
11.943422 -2.2628317 1.2658467 4
12.031016 -2.2596545 1.2594903 4
12.141479 -2.2544544 1.2515116 7
12.247599 -2.25225 1.2705475 5
12.353152 -2.246475 1.2638299 4.5
12.441115 -2.2372582 1.248921 5
12.547701 -2.2357454 1.2512226 5
12.639377 -2.2284758 1.2353358 5.6666665
12.753255 -2.2489567 1.2427562 6
12.847234 -2.2597251 1.2387917 6
12.945803 -2.2566342 1.240386 4.5
13.022479 -2.2235396 1.2394755 7
13.144748 -2.2040036 1.2466954 3
13.317484 -2.2039008 1.2364048 3
13.499229 -2.2799997 1.2984828 10
13.549116 -2.2767546 1.2935845 10
13.634701 -2.2717819 1.2850734 10
13.750797 -2.2601948 1.2738409 7
13.844234 -2.2327569 1.2662481 5
13.908195 -2.210546 1.2612599 5
14.452107 -2.224776 1.2957673 4
14.650965 -2.2099123 1.2856141 9
-0.14047067 -2.1470592 1.2461705 8.333333
0.026572227 -2.1530561 1.266513 10.5
1.835271 -2.1585574 1.2647188 2
2.4831223 -2.1078033 1.2376478 2
2.5261564 -2.153667 1.2404971 2
3.2876163 -2.1020484 1.2396852 3
3.3165576 -2.1573281 1.239808 3
4.1239948 -2.1478753 1.2198739 1.3333334
10.72022 -2.1558075 1.2081169 2
10.888202 -2.1904879 1.2373029 2
10.903687 -2.1382513 1.2374797 2
11.332965 -2.147475 1.2065172 2
13.064844 -2.1767321 1.228977 5
13.122922 -2.1250401 1.2265049 5
13.21428 -2.1978354 1.2428386 3
13.387155 -2.196717 1.2325765 3
13.456418 -2.1904583 1.2287252 3
13.541372 -2.1872594 1.2237911 3
13.614541 -2.181284 1.2196835 3
13.75173 -2.1775656 1.2116306 3.5
13.885265 -2.1714592 1.2038935 4
13.9568 -2.1444135 1.261447 5
14.344036 -2.1876512 1.2954733 8.5
14.454312 -2.1827009 1.2848161 9
14.551125 -2.1761119 1.2755485 10
14.650159 -2.1698282 1.2659311 8
14.762421 -2.1656964 1.2665886 9.25
14.857666 -2.1655128 1.2612655 8.6000004
14.961093 -2.1596026 1.257545 6.8000002
15.05939 -2.1601646 1.2610725 5.6666665
15.155005 -2.152406 1.2449026 6.1666665
15.259493 -2.1360068 1.2321136 5
15.34583 -2.1573527 1.2661002 4.25
15.452225 -2.1341245 1.2612206 5.3333335
15.546902 -2.145328 1.2543354 4.25
15.657153 -2.1337132 1.2466316 4
15.741961 -2.1268589 1.247961 4.6666665
15.846244 -2.1282365 1.2156987 6.3333335
15.957436 -2.117615 1.2264111 5.5
16.071522 -2.1326194 1.2554718 6
16.151041 -2.1230807 1.2746092 5.3333335
16.267014 -2.1167989 1.2817018 5
16.377037 -2.1119418 1.2726002 5
16.444696 -2.1064899 1.2671061 5
16.53068 -2.1086259 1.2596786 5
-6.7807426 -2.0565414 1.2789606 12.75
-0.14406021 -2.0518937 1.2452921 10.857142
0.02269106 -2.051625 1.2728817 12
1.7930703 -2.0527773 1.2644149 2
1.8200697 -2.0614297 1.2670366 2
2.4739671 -2.0461454 1.2391371 2
3.2593575 -2.0447712 1.2396746 3
4.0560417 -2.0439446 1.2176417 1.4
4.1019387 -2.0844831 1.2212167 1
10.747391 -2.0533204 1.2084081 2
10.927773 -2.0474188 1.2379403 2
11.385557 -2.0605669 1.2049795 2
11.422242 -2.0055864 1.2036835 2
13.175486 -2.0704989 1.2247181 4.25
13.229978 -2.0255065 1.2218943 2
13.996028 -2.0848496 1.261991 2
14.059299 -2.0474877 1.2579806 2.5999999
14.108462 -2.0052681 1.2558291 2
15.57207 -2.0578721 1.2903652 4
15.871784 -2.0982263 1.2559991 3
15.949048 -2.0497866 1.2675879 3
16.084476 -2.0452712 1.2904059 3
16.189844 -2.037358 1.2854201 3
16.293341 -2.0282435 1.2805707 3
16.373083 -2.0964618 1.2302955 5
16.425915 -2.0258112 1.2739489 3
16.560957 -2.063863 1.2483824 4.3333335
16.667755 -2.0500295 1.2422818 5
16.77239 -2.0491188 1.248827 5
16.857004 -2.0629249 1.2554905 5
16.954899 -2.0363226 1.2429056 4.5
17.056484 -2.0319674 1.2835153 6
17.150433 -2.0248809 1.2760041 5
17.247055 -2.0184968 1.2682089 6
17.347506 -2.0127234 1.2600425 5
17.446251 -2.0051618 1.2520673 6
17.55444 -2.0002193 1.2431617 7
-6.9674921 -1.9834614 1.264667 10.5
-6.8322868 -1.9952304 1.2759101 10
-0.15279701 -1.9507246 1.2477751 10.142858
0.027089477 -1.9476959 1.2798703 21.75
1.7651234 -1.9543711 1.2652217 2
2.4213703 -1.9526612 1.2370005 2
3.1916385 -1.9071338 1.23932 3
3.2124336 -1.9578295 1.2389392 3
3.9886441 -1.9085405 1.2171594 3
4.016274 -1.9574496 1.2178429 2.5999999
10.77723 -1.9514982 1.2083527 2
10.963092 -1.9432864 1.2377255 2
11.443026 -1.9425082 1.2037996 2
13.271227 -1.9754808 1.2208141 2
13.329718 -1.9316288 1.217243 2
14.157257 -1.9466771 1.2548289 2.5
15.652709 -1.9442893 1.2875603 4
15.986217 -1.996125 1.2518342 3
16.031315 -1.9419837 1.2503239 3
16.662703 -1.9899189 1.2167205 5
16.723516 -1.9478602 1.2140497 5
16.809914 -1.9091057 1.2100424 5
16.910564 -1.9959986 1.2505257 4
17.040678 -1.9606421 1.2272605 3.2
17.210768 -1.9934444 1.2352808 4
17.324478 -1.9803863 1.2299887 4
17.45186 -1.9696326 1.2238898 4
17.598793 -1.9623349 1.2166359 4
17.631641 -1.9981306 1.2367291 5
17.751654 -1.9813356 1.2210101 4.6666665
17.85807 -1.9868464 1.218003 5
17.928738 -1.9672323 1.2061071 4.5
18.029554 -1.9854696 1.2034645 5
19.922935 -1.9080764 1.2935625 4
20.119024 -1.9049672 1.2827048 4
-0.15768978 -1.84816 1.2505695 10.857142
0.020905495 -1.8496462 1.2856044 15.6
1.6896152 -1.838671 1.2612449 2
1.7238889 -1.8563118 1.2643995 2
2.3798363 -1.8528516 1.2362021 2
3.1681728 -1.8483123 1.2397457 3
3.9554775 -1.8504351 1.2161857 2.6666667
10.789982 -1.8610941 1.2093583 2
10.809837 -1.8035692 1.2089717 2
10.990901 -1.8512713 1.2377032 2
11.49549 -1.879811 1.2013671 2
11.510212 -1.8310933 1.201484 2
13.367162 -1.8668153 1.2173957 3
13.421309 -1.8093802 1.215004 2
14.195986 -1.8845286 1.2551126 2
14.253929 -1.8425949 1.2515957 2
15.694334 -1.8619015 1.2863091 4
15.764692 -1.8296554 1.2831701 4
16.072258 -1.8867694 1.2490039 3
16.146338 -1.8371472 1.2460597 3
16.836437 -1.8355658 1.2093806 5
17.099522 -1.8931253 1.2202667 1
17.138727 -1.8438854 1.2188945 3.6666667
20.296051 -1.8945937 1.2730597 5
20.479038 -1.8841379 1.2630701 5
20.650749 -1.8679889 1.2538199 5
20.851551 -1.8582869 1.2427899 5
21.048088 -1.8488256 1.2319797 5
21.262621 -1.8415089 1.259362 4.5
21.44976 -1.8289764 1.2491732 5
21.629057 -1.8212993 1.2786855 5
21.802404 -1.8077227 1.2693257 5
-4.4092302 -1.7095623 1.2799959 4
-4.3899498 -1.7250358 1.281702 3
-0.17311989 -1.7498205 1.2523223 11.285714
0.010549188 -1.7534752 1.2908012 15
1.6955426 -1.7517295 1.2651142 2
1.7114267 -1.7457837 1.2671037 2
2.3500855 -1.7483704 1.2367449 2
3.1280949 -1.748782 1.2402173 3
3.8876593 -1.7336535 1.2137908 3
3.9162617 -1.7682333 1.2157437 2.3333333
10.830832 -1.7478117 1.2084087 2
11.027975 -1.7622989 1.2367475 2
11.542494 -1.71977 1.2017448 5
13.466666 -1.7588749 1.2130319 2
13.502174 -1.7155836 1.2116655 5
14.345023 -1.7574741 1.2472047 2
15.838096 -1.7528492 1.2802631 4
16.257097 -1.7731285 1.2415272 4
16.32268 -1.7215711 1.2389623 12
16.876471 -1.7637627 1.207999 5
16.948509 -1.7215704 1.2047138 5
17.181601 -1.7927766 1.2172374 5
17.234467 -1.7435361 1.2145686 5
21.991516 -1.7958759 1.2590344 5
22.099434 -1.7516859 1.2930701 4
22.129206 -1.7757876 1.2517816 20
22.23601 -1.7378572 1.2689997 4.75
22.448908 -1.7309345 1.2835329 5
22.605528 -1.7204529 1.2657142 5
22.772621 -1.7097433 1.256663 5
22.849411 -1.7204999 1.2816478 5
-7.4346495 -1.6580586 1.2307634 2
-7.2984762 -1.6118977 1.267689 4
-7.0490799 -1.6899695 1.2788351 4
-6.9907908 -1.6271914 1.2426974 4.5
-5.4627929 -1.6211579 1.2466338 2
-0.17776367 -1.6492206 1.2548902 11.571428
-0.0018930435 -1.6818032 1.294252 15
0.0062913895 -1.6521555 1.2966125 15.75
1.6676223 -1.6546478 1.2654437 2
2.2826154 -1.6338623 1.2332411 2
2.3136873 -1.6741165 1.2353287 2
3.0785801 -1.6428972 1.2394489 3.5999999
3.1002135 -1.691628 1.239689 4
3.8545439 -1.6465238 1.2142118 3
10.857212 -1.6593493 1.2080326 2
11.055619 -1.6571394 1.236816 2
13.549366 -1.6529917 1.2100219 4.3333335
14.390279 -1.6975603 1.2461058 5
14.435074 -1.6474997 1.2442458 5.5999999
15.927286 -1.6553646 1.2767272 4
16.007315 -1.6001586 1.2732565 4
16.359501 -1.682864 1.2376069 4
16.417767 -1.629133 1.2353749 4
17.023943 -1.6507142 1.2014887 5
17.288069 -1.6802311 1.2123313 3
17.345499 -1.6321552 1.209102 3
22.310986 -1.641477 1.2444446 5
22.918224 -1.693754 1.2488732 5
23.083405 -1.6639749 1.2524362 5.3333335
23.164368 -1.6278633 1.2759868 6
-7.3859177 -1.5405842 1.2641444 4
-6.9745016 -1.5668586 1.2041404 5
-5.5322037 -1.5943526 1.2411994 2
-3.9580131 -1.5738428 1.2947205 2
-3.8567281 -1.5918913 1.2994481 5
-3.7463248 -1.5519688 1.2389567 2
-3.6567636 -1.5287154 1.2473243 2
-0.20034695 -1.5932821 1.277878 7
-0.18414593 -1.543811 1.2535586 11.666667
-0.01061964 -1.5764053 1.2998786 18
0.0022706985 -1.5947512 1.2997351 18
1.6346085 -1.5484654 1.2653733 2
2.2474256 -1.5429795 1.2323791 2
2.3003941 -1.5881219 1.2368393 2
3.041538 -1.551423 1.2393345 3.1666667
3.7866957 -1.5313933 1.2110339 3
3.8141048 -1.581568 1.2121665 2
10.858702 -1.5516615 1.2100462 2
11.081783 -1.5626956 1.236659 2
11.119389 -1.5158103 1.2345151 2
13.638598 -1.5485445 1.2057387 2.8333333
14.478805 -1.5965836 1.2424841 2
14.540306 -1.5396423 1.2388819 2.5
16.056423 -1.5397432 1.271322 4
16.489641 -1.5770288 1.2324748 4
16.55945 -1.522831 1.2296712 6
17.391098 -1.5804136 1.2070022 3
17.434469 -1.5276312 1.2050853 3
22.375927 -1.5553209 1.2425519 5
23.149874 -1.5514963 1.2591335 5.5
-7.6729255 -1.4258149 1.2831777 4
-7.430954 -1.4326568 1.256071 26.166666
-6.8561068 -1.4308082 1.2306522 4
-0.203655 -1.4482538 1.2612919 10
-0.1868927 -1.4520212 1.2586894 11.2
1.5975728 -1.4185019 1.2654492 2
1.6152295 -1.4603251 1.2661023 2
2.1918602 -1.4228745 1.2300338 2
2.2210405 -1.4623257 1.2320694 2
2.9871609 -1.4379187 1.2376648 3
3.0114093 -1.495701 1.238081 3
3.7517424 -1.4435664 1.2107536 2.6666667
10.920154 -1.4562198 1.2066461 2
11.144265 -1.4505804 1.233735 2
13.690533 -1.4629745 1.2044642 2
13.724514 -1.4282763 1.202328 2
14.576697 -1.474256 1.2386453 5
14.632054 -1.4366305 1.2343518 5
16.130045 -1.4596901 1.268312 4
16.638302 -1.4454111 1.2266192 4
17.481379 -1.4753256 1.2027843 3
17.519518 -1.4364898 1.2007489 3
22.389027 -1.4603876 1.2436885 5
23.149437 -1.4525061 1.2397177 5
23.245903 -1.4528213 1.279245 6
-7.4719763 -1.3499092 1.2616355 5
-7.1655917 -1.3402486 1.2209779 13
-0.20441198 -1.3631754 1.2816997 3
-0.19206572 -1.3481737 1.253922 12
1.5797096 -1.3530124 1.2654747 2
2.1770484 -1.3513346 1.2306101 2
2.9646938 -1.3410121 1.2394135 3
3.6778269 -1.3084249 1.2070255 3
3.7129254 -1.3566093 1.2096813 3.25
10.94045 -1.3513033 1.2067885 2
11.175671 -1.3582468 1.2328659 2
13.766053 -1.3562133 1.2012179 2
14.678792 -1.37325 1.2325097 5.6666665
14.721631 -1.3191477 1.2304691 5.6666665
16.184452 -1.399007 1.2660786 4
16.212767 -1.3345499 1.2651329 4
16.690727 -1.3874609 1.2246248 4
16.758698 -1.3310187 1.2218666 4
22.395967 -1.3887912 1.2446744 5
22.443987 -1.323149 1.2431968 5
23.188606 -1.3654237 1.2387648 5
23.232323 -1.3545253 1.2596786 5.5
23.314388 -1.3315566 1.2811558 6
-7.4593897 -1.2618935 1.2629423 4
-6.8286295 -1.2298727 1.2391684 4
-0.21287982 -1.2503161 1.2713972 11.833333
-0.19454646 -1.2443233 1.2499673 16
1.5493176 -1.2450954 1.2652828 2
2.1394267 -1.2487397 1.2294577 2
2.9243338 -1.2505857 1.2380073 3
3.6583629 -1.2449248 1.2073087 2.5999999
10.964063 -1.2472116 1.2065268 2
11.169648 -1.286436 1.2346439 2
11.208634 -1.2376604 1.2322428 2
13.783897 -1.2874687 1.2026676 7
13.803871 -1.2694201 1.2011708 2
14.762008 -1.2515259 1.2293482 8
14.805409 -1.2080965 1.2264518 2
16.292366 -1.2759929 1.2616097 4
16.317493 -1.2333018 1.260648 4
16.786798 -1.2690027 1.2210141 4
16.825575 -1.2321568 1.219457 4
22.445566 -1.226454 1.2448697 5
23.235203 -1.2524738 1.2376738 5
23.335936 -1.2741393 1.2823517 6
23.409071 -1.2212389 1.2819972 6
-7.8513026 -1.1266035 1.202002 34
-6.9178715 -1.154166 1.2381392 4
-0.85875463 -1.1094656 1.2999946 2
-0.47047949 -1.1357986 1.2638098 8.5
-0.33602905 -1.1588947 1.2744131 7
-0.21171312 -1.1528156 1.2582941 12.8
1.4767122 -1.1008847 1.2610921 2
1.5202879 -1.1466999 1.2648101 2
2.0924366 -1.1332253 1.2274443 2
2.1099892 -1.1706482 1.228387 2
2.8798993 -1.1440285 1.2365167 3
2.908834 -1.1908464 1.2385948 3
3.5939107 -1.1157095 1.2039514 1
3.625783 -1.1657729 1.2063161 2
10.992157 -1.1751014 1.2052779 2
11.008264 -1.1158371 1.2048031 2
11.219132 -1.1567531 1.2326907 2.75
14.837866 -1.1504519 1.2255185 4.4000001
16.393616 -1.1732401 1.2572725 4
16.463543 -1.1118031 1.2541935 4
16.884342 -1.195251 1.2169502 4
16.954403 -1.137109 1.2140468 4
22.512789 -1.1384534 1.2426207 5
23.267935 -1.1847445 1.2367108 5
23.302256 -1.1444869 1.2352893 5
23.482323 -1.1647438 1.2817473 6
23.547689 -1.1039584 1.281841 6
-7.8598456 -1.0642693 1.2019148 21.5
-1.644556 -1.001888 1.2403252 24
-0.88088578 -1.0527345 1.2990427 2
-0.54545891 -1.0289806 1.2465146 5.4000001
-0.4865849 -1.0686842 1.2474866 3
-0.22794294 -1.0529414 1.2535272 9.5
1.4801842 -1.0423406 1.2630789 2
2.050185 -1.0476779 1.2249722 2
2.8542259 -1.0484679 1.2369918 3.8333333
3.5729356 -1.0521653 1.2037017 1.8
11.029029 -1.0417379 1.2041014 2
11.248958 -1.0493733 1.2318509 2
14.887856 -1.0844792 1.2227829 3.5
14.926636 -1.0394195 1.2202529 5
16.479944 -1.0697129 1.2536256 4
16.556074 -1.0310999 1.2500863 4
16.998409 -1.0755467 1.2123811 4
17.058697 -1.0374975 1.2097782 4
22.513754 -1.0439358 1.2441747 5
23.329634 -1.0527722 1.2348471 5
23.596905 -1.0414592 1.282424 6
-1.8303132 -0.90561223 1.2252218 34
-1.7752948 -0.91769266 1.2300092 36
-1.6267887 -0.93973094 1.237584 28.6
-0.91146255 -0.91781265 1.2985011 2
-0.89096498 -0.97816396 1.299315 2
-0.61295271 -0.99541354 1.2225518 1
-0.58482999 -0.93995041 1.2574629 5
-0.45627069 -0.96743637 1.2995135 3
1.4375852 -0.94801235 1.2606353 2
2.0205746 -0.95545095 1.2240245 2
2.7960262 -0.90666223 1.2343026 4
2.8226991 -0.95455855 1.2363073 3.5999999
3.5350857 -0.95348793 1.2023426 1.6666666
11.043262 -0.95114231 1.2041215 2
11.293621 -0.94355273 1.229615 2
14.964914 -0.96874392 1.2189049 3.5
15.016197 -0.9131276 1.2151443 3.5
16.57663 -0.98440218 1.2493222 4
16.616701 -0.94168282 1.2475656 4
17.143311 -0.95442438 1.2062882 4
22.536163 -0.9496392 1.2444535 5
23.364559 -0.93793058 1.2341847 5
23.663853 -0.95291984 1.283318 6
-1.8380543 -0.85026675 1.2299935 32.666668
-1.7218421 -0.86196381 1.2458932 26
-1.6400973 -0.8760823 1.2349194 30.5
-1.593971 -0.88807243 1.260873 35
-0.91829205 -0.84321147 1.2989756 2
-0.64008266 -0.84927082 1.2542514 6.3333335
1.4162421 -0.84892207 1.2606318 2
1.9790517 -0.84215736 1.222104 2
2.0086932 -0.89558154 1.2242005 2
2.7853835 -0.84372646 1.2351747 3
3.4955909 -0.8552562 1.2004844 2
3.510951 -0.89104635 1.2013412 3
11.072161 -0.84684211 1.2029657 2
11.313029 -0.84785765 1.2292358 2
15.073507 -0.84773237 1.2109349 2.5999999
16.658619 -0.87555718 1.2458218 4
16.736084 -0.81193876 1.2422942 4
17.221184 -0.85063899 1.2032037 4
22.567112 -0.85370237 1.2442141 5
23.396503 -0.8224107 1.2336056 5
23.404453 -0.87129796 1.2326554 5
23.750132 -0.86833906 1.2835555 6
23.800314 -0.8078084 1.2840364 6
-1.8515458 -0.79452187 1.2316531 8
-0.93702221 -0.75232714 1.2986573 2
-0.66710633 -0.75185412 1.2533946 5
1.3827773 -0.75175804 1.2590345 2
1.9494954 -0.74770141 1.2209533 2
2.7599866 -0.7483604 1.2349497 2.2
3.4647768 -0.71402252 1.2012578 2
11.098798 -0.77119702 1.2015768 2
11.1075 -0.72660416 1.2013259 2
11.334517 -0.7522521 1.2285721 2
15.147089 -0.7494117 1.205909 2
16.775356 -0.74466544 1.2406478 4
22.584232 -0.75850976 1.244688 5
23.425161 -0.75163466 1.2326915 5
23.858276 -0.74743521 1.2842958 6
40.017303 -0.72550082 1.2944682 20
-7.4376168 -0.69604909 1.2321327 56
-0.95795631 -0.6489895 1.2982614 2
-0.6758585 -0.65283656 1.2540039 4
1.3503926 -0.64319491 1.2576704 2
1.8997679 -0.62182289 1.2180331 2
1.9346266 -0.66391569 1.2211536 2
2.73088 -0.65348941 1.2339121 3
3.4520545 -0.68784553 1.2003008 3
11.112285 -0.65076858 1.2017125 2
11.348867 -0.64162731 1.228561 2
15.178011 -0.6748994 1.2049992 3.5
15.209104 -0.6233831 1.2030597 2
16.798225 -0.67826378 1.2397921 4
16.843121 -0.63664621 1.2377349 4
22.615608 -0.66451007 1.2442753 5
23.473446 -0.6637392 1.2307945 5
23.93783 -0.65573108 1.284914 6
42.264412 -0.62367964 1.2930262 21
-0.98821712 -0.56062412 1.2968605 2
-0.71421051 -0.52326435 1.2525105 2
-0.69111109 -0.57102406 1.2538086 3.5
1.3354942 -0.54200679 1.2580278 2
1.886609 -0.52435452 1.2185702 2
1.9108045 -0.58241218 1.2201703 2
2.6862795 -0.53498417 1.2310581 1
2.7248347 -0.58214295 1.235373 3
11.129707 -0.55986851 1.2010976 2
11.381984 -0.54823512 1.2266803 2
15.242339 -0.54895306 1.2015824 2
16.884047 -0.59213656 1.2358766 4
16.950264 -0.52274966 1.2328421 4
22.622465 -0.56808782 1.2452333 5
23.485666 -0.56907451 1.2309361 5
23.512562 -0.50224698 1.2299707 5
23.993019 -0.56203926 1.2862504 6
24.048168 -0.50014806 1.2866172 6
42.412354 -0.57085145 1.2690589 21.5
43.339745 -0.5439291 1.2696813 23
-2.1387691 -0.40545812 1.2038008 2
-1.0340514 -0.42775145 1.2946297 2
-0.97743893 -0.4671095 1.2988355 2
-0.71553737 -0.45591378 1.2532231 2
1.2985163 -0.44365904 1.2556169 2
1.3140987 -0.4574323 1.257172 2
1.8773441 -0.43974978 1.2191908 2
2.6592119 -0.44784054 1.2295768 1.3333334
11.135977 -0.49872202 1.2011087 2
11.39618 -0.45494208 1.2262857 2
11.426398 -0.4383679 1.2238786 2
13.717012 -0.43800321 1.216193 3
15.269867 -0.47488195 1.2006619 2
16.983994 -0.45580375 1.2313894 4
17.022322 -0.41017631 1.2296287 4
22.663675 -0.45086923 1.2444412 5
23.519432 -0.43091875 1.2301376 5
24.111099 -0.43823493 1.2867682 6
45.257191 -0.4306218 1.2309422 47
-2.1291587 -0.34571758 1.2052543 15.5
-2.0968065 -0.35336477 1.2096474 17
-1.0202744 -0.34864867 1.2966174 2
-0.9827733 -0.34410506 1.2997534 2
-0.74367332 -0.35890219 1.2520512 2
1.2800164 -0.33354798 1.2554203 2
1.3071859 -0.38698879 1.2576621 2
1.8373145 -0.34694502 1.2162769 2
2.6418331 -0.35076723 1.2296417 1.4
11.154336 -0.34595025 1.2007325 2
11.421985 -0.35346568 1.2248808 2
13.755784 -0.34020901 1.2145327 2.6666667
17.088434 -0.36556736 1.2264816 4
17.126459 -0.31932497 1.2247202 4
22.691544 -0.3574729 1.2440357 5
22.714897 -0.31045771 1.243275 5
23.526043 -0.33562893 1.2304571 5
24.143272 -0.33890218 1.2888818 7
44.962151 -0.30707645 1.2407581 23
45.054173 -0.34999275 1.2329204 25
-4.5729365 -0.25549093 1.2940065 2
-3.0403435 -0.21212819 1.2896787 1
-2.1607132 -0.26170298 1.2020158 3
-1.0471029 -0.25823617 1.2953562 2
-0.7455759 -0.26016375 1.2530041 2
1.2779397 -0.25393358 1.2564967 2
1.8207279 -0.25067848 1.2160499 2
2.6193285 -0.25367346 1.2286916 1
11.451922 -0.25908798 1.2229624 2
13.783055 -0.26528347 1.2133828 2.3333333
13.811574 -0.21816212 1.210704 2.3333333
17.172312 -0.27313405 1.2225624 4
17.210024 -0.22634888 1.2208005 4
22.737736 -0.23764896 1.2428277 5
23.577778 -0.24388182 1.2281395 5
24.252787 -0.24512208 1.2887064 7
45.093578 -0.21812105 1.2330089 25
45.350407 -0.27740881 1.2293367 47
-3.6586568 -0.13370301 1.2661542 2
-3.1627433 -0.14510019 1.2751849 8.3999996
-3.0613959 -0.19555905 1.2872483 1
-2.1538503 -0.17704332 1.203966 1.3333334
-1.1142859 -0.12383616 1.2911334 2
-1.0337939 -0.18117899 1.2972143 2
-0.74873132 -0.15832008 1.2538334 2
1.2604259 -0.15269288 1.2560003 2
1.7937813 -0.11726367 1.2150799 2
1.809213 -0.16515499 1.2161288 2
2.5933938 -0.10224569 1.2281573 3
2.6098697 -0.15481922 1.2295393 1
11.476782 -0.148054 1.2214562 2
13.832449 -0.14976296 1.2099335 2.2
17.256289 -0.15534799 1.218652 4
22.762611 -0.14041758 1.2425005 5
23.56143 -0.17059064 1.2295177 5
23.604744 -0.12570536 1.2273206 5
24.346832 -0.18260634 1.2880088 7
24.424677 -0.11901951 1.2877823 7
45.081894 -0.18810844 1.2382556 23
45.317108 -0.12319852 1.22993 47
-3.409353 -0.095943883 1.2888383 2
-3.1690536 -0.08665251 1.2749016 34
-2.0644798 -0.026927283 1.2170744 2.3333333
-1.1165652 -0.092827857 1.2912314 2
-1.0471449 -0.056946576 1.2972704 2
-0.76534301 -0.058141053 1.2534804 2
1.2443044 -0.05185613 1.2555259 2
1.7732838 -0.054430127 1.2136197 2
1.8084698 -0.067383766 1.217564 2
2.5948906 -0.047546759 1.2294704 1.5
2.6027203 -0.047093242 1.2306826 3
11.487984 -0.050055265 1.2209235 2
13.855203 -0.054869693 1.2095563 3
17.332798 -0.05794327 1.2150277 4
22.784691 -0.045201361 1.2422518 5
23.592125 -0.076763511 1.2283031 5
23.631142 -0.031238675 1.2263237 5
24.446341 -0.053613067 1.2891421 7
45.071938 -0.074968338 1.2364949 24
-2.1159115 0.0328058 1.2090284 2
-2.0565057 0.048899706 1.2185187 2
-0.74761295 0.042158086 1.2559053 2
1.2354763 0.050683297 1.2557847 2
1.7728945 0.040400073 1.2149172 2
2.5867913 0.052986719 1.2300589 1.8
2.6011376 0.043068528 1.2320935 1
11.518205 0.048006155 1.2186731 2
13.891185 0.038402893 1.2066399 3.4000001
13.902159 0.091457844 1.2063711 3
17.378582 0.036131322 1.212885 4
22.819084 0.04972136 1.2412378 5
23.641525 0.040339649 1.2260742 5
24.535742 0.010617256 1.2886108 7
24.616928 0.075593352 1.2883222 7
45.054436 0.064406872 1.2390523 23
45.108765 0.034808874 1.2344563 25
45.353268 0.030836275 1.2293017 47
-7.4299145 0.18493187 1.2748495 4
-3.202966 0.18095347 1.2719721 4
-3.1334889 0.16166823 1.2805486 1
-1.1320071 0.18190598 1.2922404 2
-0.75472707 0.14116967 1.2562147 2
1.2302941 0.15322465 1.2563356 2
1.7561646 0.15067822 1.2143686 2
2.5902126 0.1519009 1.2321541 3
11.532344 0.14692903 1.2176845 2
13.921635 0.15226938 1.204775 3
17.461504 0.11084482 1.2088531 4
17.50189 0.1596185 1.2068901 4
22.834919 0.14696473 1.2412493 5
23.631886 0.1371358 1.2270321 5
24.617884 0.13880122 1.2901711 7
45.153744 0.16998947 1.2356176 24
45.324928 0.1771324 1.2297904 47
-3.3469067 0.28250277 1.2954119 2
-3.2108462 0.20041743 1.2710259 1
-3.1033411 0.23898326 1.2843922 1
-2.0551639 0.20008427 1.2192045 1
-0.75090188 0.24130881 1.2573832 2
1.2216763 0.25431785 1.2563226 2
1.7612423 0.26047674 1.2162337 2
2.592047 0.24265516 1.2336704 3
2.6124668 0.29675406 1.2374485 3
11.538906 0.24550942 1.217226 2
13.945505 0.24857596 1.2031164 3
17.538103 0.20622054 1.2051238 5
17.606121 0.25304592 1.2017733 5
22.866041 0.24394888 1.2403238 5
23.654478 0.23226017 1.2260935 5
24.686632 0.2047174 1.2902427 7
24.707172 0.27138126 1.2916503 7
45.136112 0.28143549 1.2354982 25
-4.7429795 0.31455022 1.2692714 8
-1.1362424 0.3077662 1.2927876 2
-0.8469305 0.3378669 1.2502241 2
-0.78126907 0.34069693 1.2556697 2
1.2212845 0.35685509 1.2571564 2
1.7534848 0.35900688 1.2163291 2
2.5926423 0.34492943 1.2349185 3
2.601604 0.36854714 1.2365324 3
11.5513 0.34422287 1.2161745 2
13.962599 0.3410669 1.2021221 3
22.893955 0.31680739 1.2393315 5
22.913055 0.36799395 1.2386425 5
23.666235 0.35048339 1.2257711 5
45.156937 0.30216551 1.2368978 23
45.290047 0.33091268 1.2303838 47
-7.4494872 0.43003094 1.2671375 39
-2.127574 0.4963409 1.2261704 2
-1.0672498 0.46228993 1.2994491 2
-0.80781507 0.43903977 1.2542043 2
-0.78396225 0.43958247 1.2561809 2
1.2257539 0.44844586 1.2583473 2
1.7357137 0.45647669 1.2151146 2
2.5866649 0.44953254 1.234934 3.25
2.6036274 0.44940013 1.2375138 3
11.562753 0.44400901 1.2150913 2
13.976364 0.45120254 1.2015918 3
22.921299 0.4404065 1.2387135 5
23.697426 0.44744039 1.224221 5
23.70274 0.49552333 1.2240055 5
25.703041 0.47671914 1.2704586 8
45.127953 0.41994321 1.2370253 24
45.3167 0.47741282 1.2298951 47
-7.3589945 0.52199453 1.2736597 4
-6.8329973 0.55940425 1.2971056 4
-4.7937183 0.50072795 1.2990522 2
-4.2153368 0.56359398 1.2165096 2
-3.5148764 0.55886918 1.2324861 3.5
-3.3210492 0.58551538 1.2562916 1
-1.1393657 0.52383876 1.2938509 2
-0.8121869 0.53934354 1.2545341 2
1.2208054 0.54988372 1.2583674 2
1.7202814 0.5546329 1.2140615 2
2.5887818 0.54343915 1.235866 3.25
2.6006169 0.56533176 1.2378005 3
11.557914 0.55745327 1.2152444 2
13.988048 0.54312247 1.2007751 3
22.955355 0.53603697 1.2374318 5
23.687923 0.54408062 1.2249216 5
23.712862 0.59178472 1.2235591 5
25.850576 0.54826969 1.2685205 8
45.099808 0.52860975 1.2378774 25
45.141953 0.55459666 1.2372364 23
-7.4457088 0.61363631 1.272603 39
-7.2291079 0.65432942 1.2829696 43
-4.2322712 0.6705128 1.2145782 2
-4.1752596 0.61438596 1.2199517 2
-3.7906153 0.63842624 1.2031227 2
-3.3445697 0.64744103 1.2529113 2.25
-0.8341341 0.64073539 1.2533648 2
-0.78723192 0.63993084 1.25723 2
1.2214519 0.65185881 1.2589154 2
1.7280558 0.65377527 1.2156299 2
2.592072 0.64112926 1.2367802 4
2.6021786 0.673621 1.238427 4
11.569344 0.65673488 1.2139432 2
13.990049 0.6056847 1.201019 3
22.963802 0.63343257 1.2375712 5
23.710011 0.66421098 1.2237786 5
26.183317 0.65902567 1.2626579 8
45.123375 0.66334474 1.2378697 24
45.270775 0.63076705 1.2306631 47
-7.4313083 0.72665596 1.2764118 67
-7.3336186 0.78924465 1.2823137 39
-3.6066062 0.72161162 1.2198981 3
-3.5118797 0.75323629 1.2312856 6
-3.4979625 0.7322464 1.2332113 4
-0.78185081 0.74054176 1.2582562 2
1.2138215 0.75434887 1.2583463 2
1.7257824 0.75222909 1.2158897 2
2.5975182 0.71712565 1.2377889 3
2.6075554 0.77139008 1.2393551 3.5
3.2708104 0.74895585 1.201265 3
11.566185 0.75652242 1.2137628 2
13.99488 0.76795948 1.2009904 3
22.999668 0.70755154 1.2359536 5
23.019337 0.75963604 1.2351124 5
23.736927 0.76046175 1.2222733 5
26.35553 0.77393293 1.2612967 9
45.109459 0.79128659 1.2385439 24
45.276169 0.79244536 1.2305233 47
-7.4559827 0.8385514 1.2784793 78
-7.2986922 0.87563628 1.2861841 52
-4.24793 0.8571707 1.212153 2
-0.84254694 0.82457662 1.2536893 2
1.226981 0.85609287 1.2600873 2
1.7318097 0.8499707 1.2170049 2
2.6093473 0.85165441 1.2395461 3.8
3.2738261 0.84924674 1.2020173 3.25
11.571732 0.85801381 1.212736 2
13.999997 0.85751796 1.2001534 3
23.026541 0.83402282 1.2350769 5
23.739212 0.85711545 1.2221115 5
26.298122 0.84527445 1.2649391 8
-7.440671 0.95034242 1.2821908 61
-4.6188807 0.94849908 1.2956502 2
-4.2769527 0.94019109 1.2089592 2
-4.1995096 0.99928617 1.2154735 2
-3.5019331 0.94743037 1.2544453 24
-3.49945 0.91672719 1.2308893 27
-0.88958836 0.9424516 1.2503641 2
1.2369038 0.94682944 1.2613058 2
1.7441727 0.94799876 1.2187483 2
2.6211727 0.94989705 1.2410437 4
3.2751057 0.95108354 1.2022631 3.2
11.566424 0.94264269 1.2126318 2
23.024925 0.93311995 1.2356218 5
23.770786 0.95161533 1.2202258 5
26.694378 0.99444336 1.258426 9
45.089062 0.91455007 1.2403895 25
45.121132 0.91742992 1.2375417 23
45.263134 0.94607115 1.2306979 47
-7.3966413 1.0174196 1.2858745 70
-3.6043377 1.0573611 1.2159268 7
-3.340101 1.059616 1.2629209 36.666668
-2.9476242 1.0644014 1.2962483 47.25
-0.8504467 1.0596364 1.2540743 2
1.2299281 1.049702 1.2604097 2
1.7395761 1.0473834 1.2183769 2
2.6411839 1.0557193 1.2435097 3.1666667
3.2838547 1.0467132 1.2034401 3
11.569326 1.0419388 1.2116402 2
23.072514 1.0335656 1.2332933 5
23.789707 1.0487525 1.2190001 5
45.085312 1.0405821 1.2397034 24
-4.1765704 1.1041028 1.2166179 2
-3.6998587 1.100046 1.2594583 49
-3.3222513 1.1030816 1.2933035 30
-2.9570355 1.151167 1.2934209 70
-0.8753624 1.14545 1.2523212 2
1.229766 1.1514212 1.2601824 2
1.7393197 1.1463498 1.218395 2
2.6584029 1.1529764 1.2453583 3.5999999
3.2887087 1.13385 1.2038639 3
3.3040791 1.1602174 1.2060688 3
11.568015 1.1569666 1.2107582 2
17.615246 1.1966833 1.200007 5
23.109505 1.1318239 1.2315052 5
23.785933 1.1481552 1.2190013 5
45.06636 1.167305 1.2422681 25
45.103863 1.1570048 1.2377137 23
45.289547 1.1006347 1.2301743 47
-2.9569044 1.246266 1.2914135 61.400002
-0.90535927 1.2832371 1.2502553 2
-0.87071371 1.2300286 1.2529674 2
1.2456288 1.253206 1.2616903 2
1.7300057 1.245652 1.2172276 2
2.6706445 1.2505313 1.2462064 3.6666667
3.2958705 1.2481823 1.2042761 2
3.3055389 1.2630547 1.205631 3
11.564059 1.257552 1.2101108 2
17.567287 1.2679904 1.2021437 5
23.149744 1.2320304 1.2294776 5
23.825428 1.2463076 1.2164822 5
45.084457 1.2868629 1.2402596 24
45.247463 1.2534393 1.2308376 47
-7.4421501 1.3813962 1.2934647 8
-2.9565315 1.3423617 1.2892133 54.799999
-0.90370274 1.3505008 1.2505507 2
-0.89276505 1.3505437 1.2514558 2
1.2470078 1.3563558 1.2613597 2
1.744266 1.3425636 1.2187159 2
2.6786926 1.3487793 1.2461849 5.8000002
3.3208115 1.3515823 1.2072053 3
11.551854 1.3427092 1.2102195 2
17.485493 1.3832726 1.2057686 5
17.528976 1.3396305 1.2037848 5
23.171217 1.3344618 1.2284691 5
23.820374 1.3422589 1.2164464 5
45.217079 1.3986856 1.2312913 47
-7.5178862 1.4291716 1.227103 2
-7.4591312 1.4494718 1.2731491 40.666668
-2.9571288 1.4394081 1.2866727 50
-0.92876053 1.4541531 1.248691 2
-0.88804531 1.4499093 1.2520355 2
1.25201 1.4477686 1.2613883 2
1.7308081 1.4430878 1.2168208 2
2.6909399 1.4184599 1.247022 4
2.7072799 1.4691367 1.2486764 3.6666667
3.3346314 1.4473765 1.2082916 3
11.548621 1.4429317 1.2093127 2
17.437502 1.4545991 1.2078531 4.5
23.190031 1.4358597 1.2275488 5
23.828617 1.4387641 1.2155941 5
42.838905 1.4343367 1.2300709 25
45.079315 1.4145119 1.240603 24
-7.4395676 1.5351602 1.2974362 82.5
-4.8976898 1.5591296 1.2769721 2
-4.6717119 1.5605404 1.2897916 2
-2.942555 1.5347193 1.2858042 59
-0.91587192 1.555272 1.2498931 2
1.2736914 1.5489767 1.2631719 3.8
1.7448468 1.5404654 1.2180438 2
2.7164018 1.5500618 1.2486104 4
3.3542626 1.5501083 1.2099519 3
11.531424 1.5557821 1.2092998 2
17.371361 1.5447898 1.2107294 4
23.22897 1.5401378 1.2254194 5
23.830151 1.5363257 1.2150602 5
42.835587 1.5544637 1.2324922 25
45.073792 1.5390614 1.2409359 24
45.211929 1.5523372 1.2312913 47
-7.4311385 1.6063271 1.2995499 83
-2.8411977 1.6041681 1.2959087 1
-2.79703 1.6736362 1.2004288 5
-1.1125569 1.6675398 1.2984732 2
-0.92203522 1.6559752 1.2494732 2
1.2802958 1.6505659 1.2630589 2
1.7559708 1.6394889 1.2187966 2
2.741607 1.6542602 1.250329 4
3.3722038 1.6542059 1.2110981 3
11.513539 1.6557087 1.209397 2
17.340305 1.6388448 1.2118225 4
23.263176 1.6446278 1.2234979 5
23.838978 1.6343915 1.2140501 5
45.056828 1.6633075 1.241498 24
-2.8122654 1.7433076 1.2003607 7.6666665
-2.7730992 1.75951 1.2989755 1
-1.1231523 1.7477937 1.2974864 2
-0.91039562 1.7573007 1.2504646 2
1.2855768 1.7535727 1.2626351 2
1.7556615 1.7399869 1.2180812 2
2.7621727 1.7503538 1.2512718 4
3.3837066 1.7494223 1.2111849 3
11.493473 1.7531776 1.2096035 2
11.516885 1.7136366 1.208263 2
13.887918 1.7703872 1.2011074 2
17.289766 1.7587588 1.2137058 4
17.315033 1.709942 1.2127153 4
23.267761 1.7209301 1.2232206 5
23.311724 1.7750258 1.2206798 5
23.852098 1.7328844 1.2127345 5
45.063423 1.7881467 1.2415169 24
45.214233 1.7062374 1.2311517 47
-2.8148217 1.8667192 1.2020087 2
-2.7766623 1.8436977 1.2825277 1.1428572
-0.91604042 1.8429606 1.2499876 2
-0.88299656 1.890501 1.252679 2
1.2948639 1.8336551 1.2628186 2
1.3117952 1.8772087 1.264256 2
1.7706875 1.8364996 1.2190671 2
2.7811463 1.8377559 1.2519662 4
2.806149 1.8861202 1.2544364 4
3.4152617 1.8416284 1.2141482 2.5999999
11.485663 1.8679522 1.2083977 2
11.509981 1.8162708 1.2072302 2
17.186317 1.8912938 1.2180594 4
17.26597 1.8284043 1.2144978 4
23.319658 1.8507285 1.2201509 5
23.838625 1.8298283 1.212878 5
43.095089 1.8171258 1.2327869 25
45.219997 1.8603837 1.2309422 47
-2.8151584 1.9270213 1.2028258 2
-2.785696 1.96648 1.2662081 1.2857143
-0.9102354 1.9285352 1.2504128 2
-0.89056587 1.9777246 1.2519791 2
1.3163029 1.9463007 1.2638888 2
1.7728804 1.9382689 1.2183908 2
1.8073697 1.9933879 1.2218499 2
2.8159237 1.9483285 1.2541679 3.1666667
3.4321296 1.9460737 1.2144188 2.6666667
11.492908 1.9421701 1.2065247 2
17.15378 1.9604564 1.2192453 4
23.321114 1.9502051 1.2199183 5
23.857327 1.9291648 1.2111211 5
43.090244 1.9444661 1.2353086 25
45.047726 1.9091188 1.2419713 24
-2.8148632 2.0631204 1.2046151 5
-2.770268 2.0461936 1.2886324 1
-0.91607285 2.0331795 1.2498168 2
-0.89935875 2.0654278 1.2511404 2
1.3390088 2.0469556 1.2651072 2
1.7940309 2.0596552 1.2195789 2
1.8016682 2.0568764 1.2204893 2
2.8447468 2.0509269 1.2554171 3
3.4599662 2.0467067 1.2161829 3
11.478544 2.0422876 1.2059057 2
13.822968 2.0318813 1.200722 3
17.082993 2.0730186 1.2220107 4
17.101124 2.0268011 1.2214195 4
23.353556 2.0541039 1.2178531 5
23.862671 2.05144 1.2098749 5
43.212543 2.08375 1.2356855 25
45.052441 2.034061 1.2420063 24
45.221222 2.0143871 1.2308027 47
-2.8065503 2.1517916 1.2062972 13.5
-2.7781448 2.1398764 1.2715105 3
-0.91023225 2.1364863 1.2501223 3
-0.79037857 2.1851044 1.2598438 21
1.3575065 2.148972 1.2656838 2
1.8102585 2.1572661 1.2203021 2
2.8818996 2.1517723 1.2576784 3.1666667
3.486201 2.1395905 1.2176737 3
3.5025334 2.1944172 1.2185903 3
11.48692 2.1479647 1.2032032 2
13.777452 2.1872053 1.2002846 3
17.037342 2.1420784 1.2237872 4
23.365133 2.1589601 1.2169104 5
23.874697 2.149229 1.2083809 5
28.633228 2.1819003 1.2392628 11
45.030876 2.1548266 1.2425874 24
45.177975 2.1662786 1.231431 47
-2.8090007 2.2431123 1.2071168 20
-2.7816386 2.2439575 1.2790003 1
-0.75220013 2.2458794 1.262821 21
-0.65815639 2.2641644 1.2704685 7
-0.51922131 2.2722995 1.2818125 10
-0.41509247 2.2890339 1.2902772 7
1.3808711 2.2488415 1.2667081 2
1.8387256 2.2534671 1.2223439 2
2.9193175 2.2525697 1.2597034 4
3.5281272 2.247303 1.2208464 3.4000001
11.475161 2.2494597 1.2021273 2
13.751025 2.2483356 1.2011294 3
16.97341 2.2507656 1.2261522 4
23.388695 2.239753 1.2153119 5
23.882465 2.2250724 1.2072645 5
28.626858 2.2624426 1.2416936 11
43.206772 2.211499 1.2381843 25
45.040897 2.2610807 1.2370348 23
-2.8184857 2.3659325 1.223278 1.75
-2.7815659 2.3339422 1.274984 1
-0.75980377 2.3804808 1.2765211 8
-0.67082596 2.3979266 1.2841986 5
-0.40528202 2.3871291 1.2907405 7
-0.39824343 2.3375371 1.2914927 8
1.3991737 2.3148794 1.2676444 2
1.4053465 2.3611526 1.2674955 2
1.8538076 2.351774 1.2226882 2
2.9539125 2.3535233 1.2610353 3.5
3.5573072 2.3483975 1.2220522 3
11.46106 2.3341503 1.2015041 2
13.698002 2.3882637 1.2013925 3
13.71145 2.3560021 1.2012215 3
16.924217 2.3626037 1.2277229 4
23.459122 2.3974326 1.2106988 5
23.892996 2.3285646 1.2056928 5
43.200882 2.3328416 1.240544 25
44.982372 2.3025937 1.2491615 25
45.0275 2.3895063 1.2369708 23
45.176136 2.3201048 1.2313262 47
-2.8214104 2.4464104 1.2230859 1.75
-2.7784381 2.4513681 1.2698554 1
-1.614924 2.4449124 1.2513621 10
-1.540029 2.4511192 1.2257589 24.5
-1.4205855 2.4553916 1.2373593 33.599998
-1.3422956 2.4583354 1.2456375 29
-1.2410789 2.4775474 1.2591201 36.5
-1.1520375 2.4720328 1.266821 40.799999
-1.0709637 2.4849026 1.2763711 43
-0.94171411 2.4621351 1.2828825 45.333332
-0.55685019 2.4076302 1.2939217 5
-0.40571561 2.4517667 1.2904514 7.6666665
1.4335078 2.447751 1.2690345 2
1.8636454 2.4501224 1.2223084 2
2.9905167 2.4344797 1.2631941 3.25
3.0164711 2.4819927 1.2650175 3.5
3.5846896 2.4400671 1.2230784 3
3.6190357 2.4893696 1.2264172 3
11.450521 2.4365654 1.2001125 2
13.672302 2.4462087 1.2017945 3
16.871748 2.4508288 1.2295905 4
23.44898 2.4479928 1.2110456 5
23.916065 2.4300704 1.20337 5
28.613277 2.4234474 1.2465614 11
44.968399 2.4283438 1.2499135 25
45.161781 2.4732499 1.231431 47
-3.126313 2.5098929 1.2078158 24
-2.82707 2.55357 1.2085752 2
-2.7712092 2.5444417 1.2661463 1
-0.40740776 2.5515275 1.2898809 8.333333
1.4575804 2.5493755 1.2696885 2
1.8917434 2.5461895 1.2239459 2
3.0311797 2.5532875 1.2641326 3.8333333
3.6291084 2.5575075 1.2254454 3
13.58502 2.5954461 1.2053475 5
13.619283 2.541631 1.2037636 3
16.825993 2.5432601 1.23106 4
23.484581 2.5329094 1.2086128 5
23.913073 2.5251684 1.2025253 5
28.606068 2.5039077 1.2489983 11
44.984276 2.549288 1.249963 25
45.008224 2.5053148 1.2370495 23
-3.0626714 2.683851 1.2021841 52.5
-2.8199599 2.643362 1.2097498 6
-2.7763388 2.6299434 1.2612702 9.666667
-0.40454707 2.6518562 1.2896252 6.6666665
1.4810253 2.6500468 1.2701442 2
1.9267049 2.6395268 1.2262964 2
3.0722685 2.6516907 1.2656856 4
3.6598396 2.6481063 1.2265211 3.8
13.560288 2.6513255 1.2051935 3.6666667
16.762669 2.6730442 1.2330149 4
16.804237 2.6106133 1.2315431 4
23.508694 2.640245 1.2066665 5
44.983425 2.6757722 1.2503808 25
45.016212 2.6285501 1.236487 23
45.159328 2.6193669 1.2313262 47
-3.0523977 2.7184796 1.2006197 49
-2.9463739 2.7722509 1.2225918 42.333332
0.23101807 2.7420082 1.2023051 2
0.31195068 2.7608337 1.2087342 2
0.45506096 2.7647455 1.2204138 2
0.56914997 2.7754118 1.2296363 2
0.69913673 2.7836156 1.2401812 2
0.81312656 2.7926612 1.2494016 2
0.9543314 2.7949796 1.2609193 2
1.4977728 2.7540035 1.2696326 2.75
1.938397 2.7403886 1.2257258 2
3.0861983 2.7143028 1.2648119 4
3.1156998 2.7593379 1.2668625 4
3.6871917 2.7263689 1.2274051 3.6666667
